-5.308974071125610594e-02 -8.629533614047280032e-03 -1.113189828303356131e-02
1.089524335319170950e-01 1.936853253000864472e-01 -1.502712077157802514e-02
2.044255543571019684e-01 4.178384298298891131e-01 -2.668222801183097251e-02
3.550894046277662253e-01 6.378478844506786372e-01 -7.546485248644652739e-04
4.475874783692334602e-01 8.131577802540620459e-01 -3.994156663813251684e-02
6.046071392455881766e-01 1.049643834620751948e+00 -1.767976903516606940e-02
6.698413355182102347e-01 1.240282884623087112e+00 -4.659680801878334812e-03
8.324728483370934518e-01 1.460034737229215063e+00 -2.574016902297367529e-02
9.410402695999339207e-01 1.686469587948201898e+00 -4.025793314422750069e-02
1.073959389572820333e+00 1.896118697272148435e+00 -1.284579442506250321e-02
2.206796201163829518e-01 -3.964023806608066476e-03 -2.044142053097810531e-03
3.115355949049682938e-01 1.722441323198224405e-01 -4.137757490587719300e-02
4.680100373534969438e-01 4.242876141829101111e-01 -1.837453991044053075e-02
5.642848245471946411e-01 6.302464946564295678e-01 -3.732863305236384932e-02
6.800478762211300543e-01 8.165562356409733491e-01 -2.821094758898929841e-02
7.957963618547666540e-01 1.027830779196828193e+00 -4.408306854880919556e-02
9.402608851406343282e-01 1.268243980506912560e+00 -4.289695912386746329e-02
1.085770717819873665e+00 1.455024355104529654e+00 -2.198740909504662971e-02
1.206633424552118417e+00 1.689042010106468705e+00 -4.808038487598216559e-02
1.313454594032710032e+00 1.877659778180517991e+00 -2.486234588548347571e-02
4.348126692269334570e-01 -3.255309723085379747e-02 -3.567221828727649285e-02
5.853174252448232195e-01 1.954948570726349755e-01 -4.822448994949023356e-03
7.057347127820627897e-01 4.177708187385894556e-01 -3.206304640605031576e-04
8.370996374901619186e-01 6.121275443243362480e-01 -3.811798205251035881e-02
9.691727550755165899e-01 8.369084609928805207e-01 -2.524461680156383364e-02
1.082949994033263863e+00 1.055975627392156335e+00 -3.997762880335965774e-02
1.219001101923767649e+00 1.262413137813618524e+00 -3.979730999919537152e-04
1.327949380170874605e+00 1.452598478148903194e+00 -2.799642489415374649e-02
1.427392845198596216e+00 1.702111585611221223e+00 -1.263971122396589583e-02
1.549036898594257305e+00 1.882208643223060252e+00 -2.496771617117149455e-02
7.097311345900683133e-01 -2.939595103813772217e-02 -3.149702566115821639e-02
8.141720022314076211e-01 1.738234852340659886e-01 -2.064153866873151902e-02
9.402316012202255324e-01 3.989300130994867244e-01 -6.748451509577822575e-03
1.068313205775380581e+00 6.167725963495449548e-01 -1.850867988424157590e-02
1.208742032884928541e+00 8.368952199438725037e-01 -7.995057162871818321e-03
1.310579078368697248e+00 1.024204010836761825e+00 -2.896302872726084013e-02
1.430249476750256710e+00 1.237463999559064609e+00 -2.554799610951955999e-02
1.549996770518226707e+00 1.487642091474177475e+00 -2.588609960166036311e-02
1.701914750993042791e+00 1.674026786871911199e+00 -3.249482828367638437e-02
1.802825030801736617e+00 1.900360078140422182e+00 -2.820473180203043190e-02
9.557471350117177078e-01 -2.454690368862598449e-02 -1.917170782307367830e-02
1.075577340536171489e+00 1.879561826563024562e-01 -7.271262234230552179e-03
1.184565247175130676e+00 3.907771807004715714e-01 -3.142738703036830616e-02
1.338844345467057551e+00 6.311624938256300554e-01 -1.322391358893797164e-02
1.438166216710901946e+00 8.374734285194777028e-01 -4.814270997229471577e-02
1.581979823865531598e+00 1.035772537119864944e+00 -4.726182671451062065e-03
1.656488319764405581e+00 1.244318496952463216e+00 -4.377006748556189208e-02
1.818707180719306704e+00 1.456479930306725512e+00 -3.042574321063153120e-02
1.934115743052942316e+00 1.697748667346812068e+00 -2.220293425470417845e-02
2.082297168532032838e+00 1.906238369075622163e+00 -3.111628949203254849e-02
1.218649096244798447e+00 -5.949267315017938221e-03 -1.125256921441629768e-02
1.336363971188029076e+00 1.852335446550822107e-01 -9.490778905820319855e-03
1.411123978886955843e+00 3.985348691849165403e-01 -1.874924629779045615e-02
1.590986387022663706e+00 6.343517288932125631e-01 -2.856158878796964326e-02
1.652623192188011236e+00 8.165229403196506697e-01 -1.638431016512997829e-02
1.786996971226006536e+00 1.048341711082274141e+00 -4.771222380230319415e-02
1.919638796438060346e+00 1.252326126305622900e+00 -1.961755253624111652e-03
2.075638689162022210e+00 1.469311635547875028e+00 -3.911001906267943390e-02
2.174328921752858523e+00 1.696964792588986803e+00 -4.745757241471332266e-03
2.290693690011516015e+00 1.912676320025057830e+00 -3.716209522119050257e-02
1.453521018695911549e+00 -2.370070422128787990e-02 -3.205737565277003848e-02
1.558665242630412173e+00 1.787840102011195587e-01 -3.830550991306783679e-04
1.699037927646848800e+00 4.067078164393510553e-01 -1.005634553393112193e-03
1.796086507253196629e+00 6.203969110714945279e-01 -2.980159078237434173e-02
1.941609337927392875e+00 8.439769938716624731e-01 -4.306171656639495166e-02
2.029599607718489462e+00 1.030436012882799401e+00 -2.042192097126407143e-03
2.170392185708457600e+00 1.267816361035343009e+00 -3.869670350562708777e-02
2.303864875994972916e+00 1.471149019292139482e+00 -4.273935643348734936e-02
2.427760725250871054e+00 1.698354195442238534e+00 -1.905420444469732924e-02
2.552012785394506711e+00 1.900110056874246167e+00 -3.726197388946524830e-02
1.662276617840736215e+00 -4.239232515786668654e-02 -1.032227493544237915e-02
1.797895400256033449e+00 2.077425283019626590e-01 -4.415838199157545718e-02
1.903658309118647862e+00 3.968506989317308609e-01 -4.035728035772629535e-02
2.019091144467410004e+00 5.982944085983704641e-01 -2.064975322292542624e-03
2.190960349076914504e+00 8.220607581776018247e-01 -2.696992524519001289e-02
2.284167729620343312e+00 1.032560457530302234e+00 -1.632781138149927425e-02
2.439331561155490213e+00 1.266853018458508728e+00 -4.911214091990825925e-02
2.545574474314522551e+00 1.465263890807137592e+00 -3.312297748950748799e-02
2.659254544515105678e+00 1.674898155289312740e+00 -6.923562310647406529e-03
2.779874158970838671e+00 1.888355682590174833e+00 -1.587912965259376469e-03
1.931169192946486923e+00 -8.371980282709277162e-05 -2.720885690200927978e-02
2.060318411598800914e+00 2.112587291034916104e-01 -7.436774198588191193e-03
2.208477938509577410e+00 4.167340659262967484e-01 -3.637209275306200335e-02
2.290874167607491074e+00 6.126934943940522960e-01 -2.185129523820096217e-02
2.393229055422724905e+00 8.135827159452075907e-01 -1.832303513402397041e-02
2.560715386768761093e+00 1.048209365927654568e+00 -3.440013016583889915e-02
2.671885213998840047e+00 1.268103372640997373e+00 -1.334146929779945340e-02
2.779962448492138360e+00 1.478551137480134336e+00 -4.860097861789954704e-02
2.910398858174725323e+00 1.696640883311992809e+00 -4.009482355329658382e-02
3.039260540701981927e+00 1.876734375641504471e+00 -3.238745427864228588e-02
2.171362129974736987e+00 -6.319114239772828353e-04 -2.745577814898403357e-02
2.314143055845523822e+00 1.767094893657291665e-01 -2.847480596653891374e-02
2.439855551143203183e+00 4.102620447355970201e-01 -7.692733934658571235e-03
2.538020814040113926e+00 6.096956648091653719e-01 -3.037710817727292539e-02
2.660007266672754334e+00 8.375397423436706790e-01 -2.836707572318326875e-02
2.796807891100508314e+00 1.043100538235852692e+00 -2.906677550851711686e-02
2.937298966229282104e+00 1.277864255553019968e+00 -2.447997501773973780e-02
3.026179627948839546e+00 1.464336352121896390e+00 -2.990357372144653719e-02
3.172448302723362978e+00 1.691449240142255173e+00 -3.662165986102849935e-02
3.278300500285621588e+00 1.878069052175825648e+00 -2.208961801133788039e-02
6.882262835244300214e-02 5.023518551305846541e-02 -1.497308127996164334e-02
2.253923779197729016e-01 2.526250817002408944e-01 -6.410385902225420457e-03
3.313980796473960933e-01 4.555043858154030900e-01 -8.282523415633140720e-03
4.464933391424583675e-01 6.975079161403214822e-01 -1.963363081009944153e-02
5.884611231645322516e-01 8.922958842859093354e-01 -2.245776755209771477e-02
7.173334537815728718e-01 1.108805568495307092e+00 -3.962642398629799036e-03
8.474810205384110118e-01 1.325932643162497815e+00 -1.811100678165248517e-03
9.631384783538113892e-01 1.546902597674969737e+00 -2.908426859968592584e-02
1.097822729424307697e+00 1.772307274854833636e+00 -1.411514329500081558e-02
1.204325199018930759e+00 1.984595958100374258e+00 -1.732311876523671273e-02
3.427430900177454998e-01 5.629277229829015433e-02 -1.406973712351317768e-02
4.809878141606698243e-01 2.806905640897254806e-01 -2.521002532303866575e-02
5.542540787299691241e-01 4.738120301994405703e-01 -8.764091581299711387e-03
6.824482662162203450e-01 6.854482307063142210e-01 -3.469216857983008218e-02
8.261589849261327112e-01 9.049813035839249231e-01 -3.884773296858732433e-02
9.556442734816310569e-01 1.127596382447824341e+00 -4.904827430141573547e-02
1.061698573283515135e+00 1.338227842114546373e+00 -1.504143543175007550e-02
1.188170400078694344e+00 1.523363566130200963e+00 -2.408085445495056209e-02
1.333873428922533799e+00 1.755408288192297439e+00 -3.046409921543910548e-02
1.465082210842981070e+00 1.985308026302851081e+00 -5.482070586509720476e-03
6.025948261270260842e-01 6.307807878090716802e-02 -4.254521100978072082e-03
6.775457039443106844e-01 2.574029583265771137e-01 -1.727100210336435585e-02
8.292499162299147297e-01 4.732817890128075411e-01 -1.086514323653511860e-02
9.548973680463991309e-01 6.889204574630081179e-01 -4.604571496926464225e-02
1.082626921661455910e+00 8.919612818429821788e-01 -2.007475040403518263e-02
1.170173695375459788e+00 1.096586553610692905e+00 -4.549093315766548906e-02
1.294442265964271366e+00 1.308029598125709514e+00 -1.678935736693079953e-02
1.429258166169945499e+00 1.526170328122245179e+00 -3.118322414595530584e-02
1.579997437591209808e+00 1.744024292193197434e+00 -1.427388314423731590e-02
1.711652168780669614e+00 1.973027295151788207e+00 -2.153808495587455907e-02
8.271860842783400614e-01 3.572397763548135902e-02 -3.675537269552980879e-02
9.672075292374709976e-01 2.730784548494455399e-01 -2.939823165631109264e-02
1.079860522203056394e+00 4.564948747888020741e-01 -4.258017814667521689e-02
1.175505173570886130e+00 6.768265585871053869e-01 -1.114761941052285453e-02
1.320413142867710832e+00 9.063241481724519932e-01 -2.088231834962226210e-02
1.440868302002110246e+00 1.102257094174308394e+00 -5.825364293017795334e-03
1.586966942091256882e+00 1.347284129638477657e+00 -1.428435863853421556e-02
1.714888248791164971e+00 1.560029044637965878e+00 -4.643398651080601902e-02
1.820678041178742435e+00 1.768733031828845004e+00 -4.680227487644936929e-02
1.930790903959383131e+00 1.956752707358764498e+00 -1.616408210839175713e-02
1.086346407392581925e+00 6.603090376193787581e-02 -9.429610445723244500e-03
1.182301608915998781e+00 2.578149769849015782e-01 -1.795917973728726122e-02
1.324116842693102258e+00 4.744405626613751314e-01 -3.978225220869844453e-02
1.461203297876307650e+00 7.062090454800161732e-01 -2.571120822236758197e-02
1.534334992184618551e+00 8.897608833288686014e-01 -3.630437833628902961e-02
1.700007339017982844e+00 1.123506359923359677e+00 -3.092242477228768910e-02
1.782664650597938438e+00 1.321729065288747895e+00 -1.473816386620166279e-02
1.934781393510537351e+00 1.528056489515888350e+00 -7.644200048174465585e-03
2.062898326400649740e+00 1.762646242228727012e+00 -1.845007875991278024e-02
2.168465437010727470e+00 1.956804081789660366e+00 -2.403925655320881399e-02
1.290096943024448661e+00 4.014516015572191371e-02 -2.459794413500653379e-02
1.434693922927976040e+00 2.471565697205037604e-01 -4.107523630811227983e-02
1.574333178338294781e+00 4.585333246063568735e-01 -1.104834820930122169e-02
1.702003310425969307e+00 7.024425182381759392e-01 -4.422956973144160503e-02
1.819906233584331900e+00 9.167390239583134148e-01 -4.589708580412725503e-02
1.937157960873369111e+00 1.095758301994087303e+00 -2.850579772077132396e-02
2.034506211245755480e+00 1.336211555735800527e+00 -3.339308159901790973e-02
2.167182612489498172e+00 1.539394386042855389e+00 -5.104718623441428967e-03
2.301029664817129117e+00 1.755415693323037152e+00 -3.317568974417319655e-02
2.431464491659939942e+00 1.961304022599741126e+00 -2.444018943051385478e-02
1.559902039396040552e+00 5.519479509320711352e-02 -1.296401949265429086e-02
1.692867666443274244e+00 2.623203680664966120e-01 -2.276489768115414966e-02
1.822444188935118170e+00 4.629796010862446964e-01 -1.576636496868792300e-02
1.913486184785204491e+00 6.989877640636628087e-01 -3.293587101353273594e-02
2.075195289016121603e+00 8.990068160964829191e-01 -8.524816836127239658e-03
2.165300403709437660e+00 1.123290911570756778e+00 -2.839530909137608777e-02
2.285898995932374334e+00 1.328812244095009643e+00 -5.403678896310023030e-03
2.444949548192634659e+00 1.559987666106681159e+00 -2.028593171316690758e-02
2.556251911262326981e+00 1.770810553818634059e+00 -4.268090960309834508e-02
2.661071566581234560e+00 1.975649872862362377e+00 -4.338481223822810567e-02
1.805673152905437950e+00 6.537471186410573343e-02 -4.273442174426816953e-02
1.914466614434853220e+00 2.480344756741415246e-01 -4.759306346012954353e-02
2.064646390662516318e+00 4.571324137924620556e-01 -2.005478108130587592e-02
2.171893098013458534e+00 6.744048215840489080e-01 -5.282661701062080911e-03
2.292962658482905702e+00 8.914846344336528894e-01 -4.048491470856869362e-02
2.419194151859371367e+00 1.129738578456728648e+00 -5.008057208346880333e-03
2.543386636256153022e+00 1.315615091466313613e+00 -3.858636109739756875e-02
2.678301779122456150e+00 1.534742863088163878e+00 -1.556110310057056724e-02
2.797944040375550667e+00 1.767904465372895695e+00 -3.853477624929804030e-02
2.927129669006389268e+00 1.977048635466000182e+00 -4.690959916232785576e-02
2.056020559031019435e+00 5.889647328479894611e-02 -8.407838563021817480e-03
2.162688862611921170e+00 2.743056848297099615e-01 -3.250423728867367357e-02
2.278135234949411281e+00 4.780013106500881626e-01 -1.927911453354451063e-02
2.411608489730061144e+00 6.793372954643112083e-01 -3.360785379328033208e-03
2.534066315242216483e+00 8.897680450101146388e-01 -4.492494842249345616e-02
2.669402881609309830e+00 1.130419586093033280e+00 -4.676021018846270721e-02
2.813473543133438781e+00 1.347090720861307656e+00 -1.656896838465678895e-02
2.941735128618349293e+00 1.554182305652087814e+00 -3.456367868957999773e-02
3.052540887053995622e+00 1.760168511772662425e+00 -1.371384489621516739e-02
3.159648239198503461e+00 1.959172500617024637e+00 -4.913557354614871836e-02
2.308407730076158959e+00 6.576614762449405072e-02 -3.750268501505347324e-02
2.397578190643713469e+00 2.529527118524992901e-01 -2.484070819249132103e-02
2.557401909700105058e+00 4.708639908908922589e-01 -4.812450982587330311e-02
2.676950213806488676e+00 7.089119438317984523e-01 -2.855479029553851383e-02
2.826138440604900826e+00 9.201558669379729105e-01 -3.644304432030175817e-02
2.905441906986585554e+00 1.128152663699394598e+00 -2.829644665259128250e-02
3.027081903597713897e+00 1.346737809073759395e+00 -4.057070234571874545e-02
3.152229470127615674e+00 1.550738293930657319e+00 -3.113096486066331200e-02
3.266126635701975367e+00 1.764145755531164816e+00 -3.675519789207531973e-02
3.377841062999579425e+00 1.952639739328460466e+00 -7.949223394429915865e-03
